ply
format ascii 1.0
comment Created by Open3D
element vertex 1596
property double x
property double y
property double z
end_header
0.198499 -0.363232 -0.209437
-0.151167 0.335048 -0.0270662
0.179435 -0.00681293 -0.13781
-0.125033 0.291131 -0.158899
-0.11472 0.28083 0.0945004
0.175753 -0.287912 -0.197503
-0.12277 0.26368 0.0838674
-0.135598 -0.0244517 0.163274
-0.10586 -0.01336 0.0232312
-0.107747 0.0267734 -0.188654
0.222627 0.0174959 -0.109957
-0.139358 0.22123 0.0482383
0.000564127 -0.014308 -0.000806607
0.0519733 -0.0334141 -0.196673
-0.131326 0.302632 0.0624697
0.163339 -0.227911 0.196389
-0.133347 0.314574 0.025702
-0.146176 0.334933 0.00980958
0.0644065 -0.00971403 -0.146543
-0.138007 0.228763 0.0250528
0.0940472 -0.0119258 0.0612091
0.225655 -0.0104682 0.041656
0.0740463 -0.014532 -0.147143
-0.136356 0.300261 0.0452168
-0.0405004 0.0264393 -0.197286
0.170648 0.00820892 -0.128245
-0.139413 0.282366 -0.024323
-0.154946 -0.385009 -0.119188
-0.120742 0.327945 0.0997341
-0.142813 0.338006 0.0765714
-0.100034 0.332649 0.143711
-0.141678 0.30824 -0.0992998
0.0995619 -0.00905441 -0.087883
-0.151507 0.311161 -0.0867024
-0.136123 0.300427 0.0353036
0.220815 -0.0130742 0.0296253
0.16508 -0.260683 -0.202821
-0.0858778 -0.00614995 -0.0526054
0.151216 -0.197611 0.20708
-0.10073 0.320861 0.135714
-0.141761 0.316014 -0.100919
-0.147088 0.334433 -0.0855839
-0.135307 0.289255 0.0239173
-0.142299 0.236174 -0.0433854
-0.0499335 0.103365 -0.190548
0.00710749 -0.0192791 0.144555
0.216002 0.0174183 -0.107751
0.110876 -0.0109967 0.212327
-0.143295 0.247525 -0.0474238
0.128706 -0.0144298 0.0355821
-0.138231 0.27097 -0.0838437
-0.0644145 -0.0128428 -0.0558328
-0.121391 0.241637 0.10554
0.0200201 0.0214372 -0.18732
0.229613 -0.00380784 -0.0645559
-0.162902 0.349904 -0.00140876
-0.120639 -0.265268 0.177612
-0.101592 -0.0346656 -0.196696
0.102856 -0.0235799 -0.148739
0.202348 -0.00455357 0.115447
-0.136158 0.266917 -0.112259
-0.148763 0.334564 -0.082139
-0.141573 0.262762 -0.0195289
0.158597 -0.00662437 0.0209191
0.170187 -0.014214 0.106876
-0.0728783 -0.0157308 -0.0167974
0.0274987 0.0490595 0.209493
0.088716 -0.00825134 0.184371
0.213602 -0.0111257 0.149102
0.099333 -0.00864405 0.0853615
-0.102323 -0.00938126 -0.0867431
0.204037 0.0160648 -0.13426
0.161533 -0.217117 0.207939
-0.133869 0.291748 0.0363016
0.177609 -0.359474 -0.206494
-0.0574642 -0.0101758 0.217106
-0.0426974 0.0218759 0.219791
-0.142353 0.295622 -0.113893
-0.144847 0.379315 0.0994212
0.181063 -0.0101497 0.0999411
-0.0808802 -0.00641665 -0.203144
0.0300698 -0.00190985 -0.199334
0.0219452 -0.0101982 -0.170468
-0.150449 0.335342 0.0311062
-0.12562 0.284799 0.0706334
-0.129032 0.285321 0.0558682
-0.141384 0.32628 0.00318211
-0.00868555 0.000390484 -0.152413
0.0241368 -0.0169298 -0.0937551
-0.136841 -0.110938 -0.191029
-0.180315 -0.394187 -0.174291
-0.137059 0.234589 0.0251764
0.0616685 -0.00655031 0.0160546
-0.0397555 0.000772732 -0.0995656
-0.14275 0.262891 -0.0219552
-0.0322014 0.102771 -0.188102
-0.0870705 -0.0163352 0.0897784
-0.137021 0.314826 0.01824
0.116216 -0.00667026 -0.0117189
0.164813 0.000294261 -0.0918571
-0.122525 0.231547 0.0733826
-0.140798 0.307399 -0.0412982
-0.134755 0.26478 -0.00439841
0.0251858 0.0173817 -0.194766
-0.0019384 0.0700671 -0.195193
0.0691015 -0.0539569 -0.193061
-0.159791 -0.373514 0.153353
-0.132321 0.369713 0.107978
-0.139121 0.301733 -0.0310739
-0.0125237 0.0773341 -0.192278
0.174435 0.00363702 -0.0875242
0.0336933 -0.0181727 -0.15967
-0.0295602 -0.0202377 0.021821
-0.173586 0.36666 -0.0302158
-0.135316 0.366542 0.0887214
-0.142538 0.239639 -0.0094659
-0.0388001 -0.00947402 -0.0812217
-0.123936 0.270223 0.0680448
-0.0973351 -0.0164873 0.00415679
-0.144203 0.2922 -0.0785295
-0.117076 0.264373 -0.170207
0.226809 0.00684839 -0.0935694
-0.090999 0.296135 0.167587
0.165496 0.00283287 -0.0840469
-0.15989 0.341352 -0.000882327
-0.142349 0.312978 -0.0514207
-0.160289 0.350426 0.0447229
0.0265687 -0.0119798 0.0210553
-0.0417144 -0.0133685 -0.0254031
-0.135843 0.268806 -0.0960892
0.208256 -0.0124156 0.171364
-0.00806801 -0.0133329 0.190882
-0.151528 0.372152 -0.0483759
-0.103422 0.288551 0.123484
0.127076 -0.19809 -0.203677
-0.143675 0.321379 -0.128042
0.0495698 -0.00507563 0.0119119
0.174496 0.00410528 -0.140861
-0.0448054 -0.0220733 0.188154
0.21187 -0.0126303 0.143085
-0.103044 0.286127 0.101484
-0.164977 -0.395124 -0.128477
-0.133975 0.259463 -0.0676338
-0.196785 -0.380542 -0.218783
-0.138255 0.300668 0.0268478
0.151889 -0.0157875 0.164404
-0.14771 0.270186 -0.122969
-0.0209989 0.063983 0.220968
-0.0459379 0.129652 -0.183872
-0.123636 0.235739 0.102811
-0.153537 0.343531 -0.0129422
-0.102973 0.285668 0.119266
0.0107186 0.0479762 -0.194005
-0.0745463 -0.0091635 -0.18863
-0.138537 0.273613 -0.0833743
0.177055 -0.292908 -0.196383
0.212071 -0.00746328 0.155006
-0.181249 -0.326709 -0.22548
0.130172 -0.0145595 0.017905
-0.165498 -0.382575 -0.113838
0.225154 0.00306021 -0.0377222
-0.130531 0.35771 0.0986049
-0.16715 -0.394992 -0.130634
-0.0208818 -0.0144465 -0.0798764
-0.165268 0.353557 0.0380651
0.112237 -0.16265 -0.194218
0.0561341 -0.0618687 -0.202119
0.218011 -0.00558485 0.0914547
-0.139354 0.26407 0.01369
-0.138446 0.320528 0.0133805
0.17918 -0.0105855 0.0800653
0.208578 -0.0306158 0.145938
0.0253049 0.00742024 -0.193754
0.221175 -0.0117868 -0.0384645
0.0155352 0.0829767 0.206113
0.0765437 -0.0136521 0.0544875
0.0235002 0.00546032 -0.188507
-0.137979 0.277165 -0.0346028
0.12604 -0.211738 -0.202367
-0.120904 0.243987 0.0633855
-0.14528 0.254181 -0.0156029
0.0570056 0.00513292 0.212356
0.0196954 0.0166197 -0.187792
-0.157532 -0.390691 -0.0584661
-0.154436 -0.0282224 0.135483
0.000636819 -0.0188862 0.138133
-0.109492 0.272714 0.156028
-0.107869 0.306698 0.110311
-0.0582268 0.00751848 -0.139188
0.0162968 -0.00517531 -0.0650753
0.187853 -0.35933 -0.207574
0.0592216 -0.0396563 -0.193736
-0.0224356 0.0640652 -0.194726
-0.0994512 0.28777 0.15021
0.102496 -0.0148278 0.0574198
-0.0106915 -0.0167734 0.147703
-0.00519663 -0.0169921 0.13917
-0.0671938 -0.0133879 0.0266013
-0.119425 0.336866 0.135557
-0.143941 0.303959 0.0144229
0.229115 -0.0126413 -0.0217707
-0.0100462 -0.0128316 -0.00344478
0.031435 0.000229138 -0.197325
-0.144792 0.269844 -0.116298
-0.00426932 -0.0150036 0.158537
-0.0319087 -0.0127767 -0.00894789
-0.119846 0.316379 0.0704669
-0.146563 0.260782 -0.0353513
0.136872 -0.0184748 0.163736
-0.1261 0.296231 0.0824364
0.161764 0.0020097 -0.0842353
-0.14081 0.267142 -0.115619
0.129644 -0.0125372 0.0906228
-0.0430354 0.000347408 -0.131048
-0.144608 0.235281 -0.0714737
-0.140414 0.307463 -0.0472644
0.114668 -0.00734891 -0.0198565
0.211506 -0.0192748 0.147135
0.17012 -0.260824 0.196102
-0.140545 0.276883 -0.0984622
0.221975 -0.00678571 -0.0387331
0.153898 -0.00473724 -0.143882
0.224941 -0.00718343 -0.0116352
-0.162879 0.347726 0.0425869
-0.100475 0.317877 0.138919
0.0205002 -0.0225147 0.129092
-0.101983 0.300231 0.130926
0.0857101 -0.0118439 0.0438868
0.133335 -0.0155226 0.209469
-0.0583286 0.0249122 -0.195355
-0.137926 0.268327 -0.0843131
-0.140347 0.272096 -0.109869
-0.165014 0.352237 -0.0359972
0.101841 -0.012729 -0.0293016
-0.0225502 0.0872969 -0.189279
0.227357 -0.0106722 -0.0140448
-0.0168703 -0.017288 0.173175
0.21573 -0.359524 -0.204957
-0.143404 0.311209 -0.124389
-0.120435 0.330798 0.0894119
-0.152031 0.34317 -0.0344715
0.100265 -0.138211 -0.204219
0.129088 -0.0138642 -0.149967
-0.0215413 -0.000680908 -0.10071
0.114464 -0.0135144 0.187169
-0.0784858 0.285806 0.200134
0.21145 -0.015145 0.131723
-0.127019 -0.14242 -0.21459
-0.135389 0.358555 0.119439
0.125514 -0.012887 -0.0283725
0.0995311 -0.00789926 -0.0480594
0.051195 -0.0391689 -0.201703
-0.150337 0.350423 -0.0739634
0.0883528 -0.104017 -0.203641
0.2218 -0.022853 0.0379392
0.00538794 -0.0141499 0.204237
0.0824958 -0.0978676 -0.200101
0.17537 -0.0102545 0.0661156
-0.12343 -0.117203 -0.217562
0.193525 -0.00649932 0.148024
-0.141465 0.292554 -0.0960537
0.149718 -0.00662719 0.0833283
-0.141678 0.233234 -0.0410737
0.0164424 -0.0154497 0.00470358
-0.00282583 0.113043 0.204059
-0.174523 -0.398008 -0.186134
-0.133302 0.308527 0.0609337
0.221633 -0.00593264 -0.106386
0.201567 -0.00815535 0.139091
-0.145418 0.246434 -0.0753831
0.0651351 -0.00189703 -0.130759
-0.1697 -0.398226 -0.145634
-0.146605 0.316358 -0.112086
0.0169532 -0.000563604 -0.181599
-0.166453 0.381396 -0.0518131
0.0479993 0.0326665 0.210085
-0.123131 0.25871 0.0629197
-0.103783 0.276324 0.133542
0.154869 -0.0131455 -0.145375
-0.159624 0.35511 -0.00548708
-0.00781136 -0.0145044 0.00469437
-0.0929424 0.295848 0.188482
-0.0972203 -0.0190709 0.108035
-0.101491 0.282984 0.107226
-0.0826252 -0.0120469 -0.0268359
-0.197675 -0.382715 -0.221596
-0.15606 0.341432 0.0348775
-0.137051 0.237678 0.0222697
0.134334 -0.215311 -0.197588
0.0168675 0.0165469 -0.198318
-0.0828025 0.0196344 -0.203791
-0.0817858 0.201805 -0.177185
0.226577 0.00949219 -0.0879275
-0.0914181 0.287162 0.163247
0.0531206 -0.0406732 -0.202749
-0.00152087 0.0714766 -0.190532
0.11842 -0.0036069 0.0691645
0.135468 -0.222342 -0.20616
0.226511 -0.00551653 -0.0159314
0.126056 -0.00684072 -0.0744825
-0.134733 0.323077 0.0242558
-0.0806918 -0.0104164 -0.0435225
-0.147318 0.360436 -0.0794373
0.174258 0.00616762 -0.140495
0.1339 -0.00256704 0.0557939
0.029145 -0.00947575 -0.183376
0.0929629 -0.124217 -0.203654
0.138629 -0.216769 -0.200051
-0.156366 0.36341 -0.0940779
-0.145776 0.313573 -0.094223
-0.137673 0.355127 0.0855296
-0.143846 0.361046 0.069562
-0.0908807 0.28632 0.197958
0.0323338 -0.00760069 0.0307187
0.127679 -0.0050783 0.126524
-0.026813 -0.00839754 -0.163118
0.148927 -0.242644 -0.206185
0.18116 -0.00357254 -0.0254915
-0.0484748 -0.0200581 0.191413
-0.0662393 -0.0143186 -0.0173217
-0.0787016 0.0139006 -0.198786
-0.153376 0.343806 0.0115198
0.157292 -0.0171948 0.221711
-0.14031 0.28402 -0.0757298
-0.150478 0.33719 -0.0945716
-0.197276 0.395845 -0.0391889
0.109387 -0.0115735 -0.136057
0.20856 -0.00511478 0.143228
-0.13223 -0.105501 -0.210263
-0.137613 0.229133 -0.0611178
0.115198 -0.185312 -0.205544
0.0438104 -0.0219851 -0.193909
-0.117989 0.254325 -0.16644
0.189485 -0.0076916 0.0773083
-0.071055 -0.0240863 0.192906
-0.0911263 -0.0127819 0.0854515
-0.162408 0.358572 -0.102881
0.117948 -0.162409 -0.194749
0.223417 -0.00292668 -0.0425135
-0.13741 0.355036 0.0819443
-0.0303621 -0.0188634 0.184573
-0.134586 0.26613 0.0305853
0.143492 -0.249095 -0.191906
-0.079248 0.00572513 -0.138011
0.0164304 0.0217128 -0.199789
-0.0321485 0.0228199 -0.196286
0.0208384 -0.0152292 0.0181329
-0.103831 0.28559 0.123474
-0.0894236 0.289718 0.181311
0.104839 -0.00824408 -0.0517204
-0.0655579 -0.0120252 0.022282
0.184225 -0.269786 0.206441
0.0809791 -0.0847419 -0.19777
-0.0764813 -0.0192024 0.197783
0.0633746 -0.00109972 -0.134852
0.169284 -0.225408 0.203133
0.115614 -0.0219247 -0.150658
-0.103241 0.265322 0.106633
-0.106791 0.252729 0.122283
0.109739 -0.0116955 0.105175
0.137966 -0.00417187 -0.106277
0.120035 -0.0185043 -0.150283
0.208888 -0.00317087 0.0383341
-0.0460438 0.00302955 -0.112903
0.182151 -0.316247 -0.201928
-0.154685 0.332642 -0.00456066
0.149372 -0.00983644 -0.0543559
0.134003 -0.00932236 -0.0161971
0.104468 -0.0140484 0.0354233
0.229652 0.00704569 -0.105935
-0.142367 0.312691 -0.022206
0.0123014 0.0216332 -0.20271
0.0189216 0.0218909 -0.198494
-0.105628 -0.0125099 -0.0884546
0.0193547 -0.00963056 -0.0760437
0.154091 -0.0125425 -0.0580316
-0.030185 -0.00196101 -0.160807
0.0396977 -0.0448073 -0.180563
-0.138797 0.274544 -0.0374755
-0.11406 -0.288376 0.18383
-0.140502 0.38407 0.0835422
0.22079 -0.00853551 0.0398577
-0.119936 0.266085 0.0963616
-0.0529259 -0.014489 0.106976
-0.121109 0.336628 0.0904473
-0.14103 0.246749 0.0158209
-0.137873 0.255673 -0.0969066
-0.141873 0.313698 -0.127208
0.137257 -0.0172981 0.159372
0.136424 -0.0091348 -0.0149706
0.101427 -0.0135437 0.0312241
-0.149374 -0.392426 -0.119565
-0.125594 0.293345 -0.148617
-0.1368 0.30139 -0.0173576
-0.141416 0.218903 0.0391009
-0.0183112 -0.00969804 -0.0542121
-0.00729869 0.109613 0.203629
-0.152196 0.340422 -0.0405455
-0.141431 -0.126812 -0.191416
-0.0580799 -0.0123333 -0.183123
-0.14338 0.318826 -0.125946
-0.114898 -0.0947069 -0.20232
-0.0953161 -0.0160673 0.0165177
0.0115341 -0.0215123 0.198083
-0.102949 0.270584 0.125047
-0.170411 -0.392102 -0.175142
-0.119881 0.260513 0.158511
-0.152539 0.358497 0.051106
0.00130372 0.00725385 -0.122454
-0.16307 -0.398334 -0.151714
0.207697 -0.00282277 0.144305
0.226323 -0.0125582 0.104174
-0.048671 -0.0197192 0.118659
-0.137891 0.35338 0.149804
0.223202 0.000178371 -0.117022
-0.138899 0.254942 -0.175914
0.0131395 0.0411026 -0.193583
-0.0733555 -0.0197494 -0.187993
0.0302852 -0.0258776 -0.15391
0.218926 -0.0161841 0.0650406
-0.168298 -0.39223 -0.173045
-0.0909641 -0.00488359 -0.0497239
-0.147496 0.33704 -0.0877786
-0.139778 0.239494 0.0404433
-0.145212 0.349887 -0.0816897
-0.179684 -0.337526 -0.221983
-0.204387 -0.373508 -0.232041
-0.133718 0.343918 0.142312
0.0983269 -0.00548298 0.166854
-0.0875287 -0.0179248 0.0824741
-0.148424 0.310929 -0.0798307
-0.133854 0.261871 -0.0617047
-0.120539 0.327925 0.0961097
0.173217 -0.00518714 -0.0429152
-0.0625853 0.0524475 -0.185177
-0.142347 0.307738 -0.0606092
-0.00244468 -0.00126763 -0.113454
0.150539 -0.199582 0.203266
0.218285 -0.0120933 0.015885
0.223151 -0.0211727 0.0334255
0.158198 -0.00142129 -0.143659
0.0348294 -0.01135 -0.00737807
0.171241 -0.303142 -0.201446
0.0250611 -0.00681177 0.0567439
0.0322631 -0.00526027 -0.186632
-0.14381 0.294571 -0.0672371
0.0560942 -0.00214302 -0.128494
0.162053 -0.0152298 0.114929
0.220649 -0.0088648 -0.0406855
-0.144872 0.372527 0.0680813
-0.052684 -0.0220177 0.125399
0.153808 -0.00771517 0.101162
0.204501 0.0120475 -0.134974
-0.0341234 0.00180252 -0.15858
-0.138323 0.28254 -0.0308187
-0.124564 0.319555 0.0602617
0.0260917 0.00702768 -0.1918
0.116017 -0.178921 -0.202835
-0.139553 0.346397 0.0721375
-0.0952265 0.326476 0.165872
0.0808704 -0.00813594 -0.00452517
-0.142777 0.303057 -0.0968368
0.124942 -0.0194123 -0.150691
-0.133949 0.263196 -0.0894532
0.0633555 -0.00611264 0.00514125
-0.12573 -0.0253335 0.143668
0.175762 -0.294934 -0.198286
0.116367 -0.0094252 -0.137295
-0.133199 0.298835 -0.159784
-0.0747856 0.276793 0.188472
0.171587 -0.241755 0.213394
0.149258 -0.00791843 0.109251
-0.128255 0.358177 0.129085
-0.164421 0.347329 0.00522054
-0.131089 0.357689 0.0954855
-0.0627749 -0.0154217 -0.0447379
-0.0596959 -0.0159547 0.180009
-0.137629 0.377751 0.0743884
0.137583 -0.00782489 -0.00958915
-0.145553 0.236304 -0.00202144
0.154848 -0.00455951 -0.0166773
-0.140426 0.27678 -0.0958226
0.0668214 -0.0102782 -0.10093
0.0592648 -0.0450207 -0.199096
0.0732842 -0.0108497 0.0201522
-0.0832235 -0.000735074 -0.206389
0.164747 0.00284797 -0.144708
-0.0971979 0.332492 0.14908
-0.103392 0.300337 0.128259
0.0571902 -0.0467791 -0.188963
-0.0947231 0.284485 0.154021
0.183825 -0.331962 -0.199763
0.0950953 -0.0133516 0.0567499
0.142376 -0.016579 0.208095
0.172635 -0.302554 -0.197315
-0.12145 0.237706 0.0699083
-0.118652 0.336529 0.0992744
-0.0197179 0.0718717 -0.194781
-0.00446191 -0.00600002 -0.162773
0.103111 -0.0257857 -0.149131
-0.134536 0.229846 0.0530977
0.216382 -0.00729037 0.0408697
-0.0452186 -0.0165663 0.193182
-0.0792445 0.020043 -0.202625
-0.139298 0.260099 -0.0791986
-0.0843795 0.0366231 -0.178715
0.0543051 -0.00134909 -0.132617
-0.13615 0.297516 0.0382445
-0.189935 0.389226 -0.0490161
-0.13773 0.23037 0.0449256
0.108089 -0.0198085 -0.148715
0.165636 -0.0168944 0.190715
-0.12642 0.253318 0.0541858
-0.135403 0.272819 0.00623603
-0.0319546 -5.10133e-05 -0.100849
0.214885 0.00259889 -0.0201913
0.0308803 -0.0107045 0.076774
-8.25686e-05 -0.0200269 0.226297
0.0186552 0.0305164 -0.194949
0.214059 -0.023902 0.156001
-0.136338 0.254296 0.0368039
-0.130978 -0.140495 -0.215473
-0.0794142 0.0039561 -0.0877133
-0.132914 0.296368 -0.160222
-0.145254 0.235281 -0.0300627
0.217928 -0.00859743 0.00380699
-0.0259004 0.00196606 -0.133652
-0.134214 0.248905 0.0284411
0.026556 0.0131791 -0.195894
0.166358 -0.288756 -0.197047
0.157516 -0.336884 -0.202301
-0.109402 -0.00654639 -0.0917867
-0.121431 0.254641 0.151392
-0.111671 0.318597 0.117621
-0.0787904 -0.00546068 -0.0949535
0.208445 -0.00782246 0.175456
0.144128 -0.00279752 0.118323
-0.133412 0.306058 -0.14895
-0.00286796 0.00317935 -0.13934
0.0343491 0.0293258 0.201683
0.102851 -0.00947057 0.0172917
-0.152768 0.3721 -0.0534684
0.0181713 0.0353026 0.208766
0.199654 -0.352608 -0.208966
-0.0458432 -0.0119306 -0.0227783
-0.138714 0.227616 0.041846
-0.134748 0.315928 -0.137198
0.20658 -0.00449985 0.118464
0.224562 0.00058545 -0.11043
-0.0655522 0.074185 -0.193249
-0.000771812 -0.00710674 0.197537
-0.148259 0.36993 0.0664443
-0.0702594 0.000994838 0.220212
-0.0819257 0.00846772 -0.190896
0.0569781 -0.0162041 -0.0705557
0.142194 -0.22 -0.199949
0.107077 -0.14082 -0.203202
-0.100876 0.262089 0.111895
-0.161958 0.350067 0.0136147
-0.0570248 -0.000140554 -0.087966
-0.143508 0.303992 0.0110466
0.0986553 -0.00552432 -0.100507
0.193168 0.00900153 -0.112906
0.127936 -0.185914 -0.197949
0.0974227 -0.0187042 0.170972
0.0743914 -0.0050447 0.122404
-0.141611 0.312296 0.0141325
0.103041 -0.11322 -0.197882
-0.0864786 -0.0147182 -0.197223
-0.146231 -0.392887 -0.0578908
-0.0396 0.137829 -0.185259
0.182286 -0.365862 -0.207473
-0.0902299 -0.00711623 -0.179655
0.138898 -0.00623107 -0.0664267
-0.136812 0.303246 0.0392621
-0.111455 0.274575 0.102332
0.1615 -0.250294 0.201964
-0.132601 0.273253 -0.141216
-0.131058 0.238589 0.0553609
0.197371 -0.000107532 0.000830524
-0.194453 0.393147 -0.0320314
-0.158159 0.345338 -0.106307
-0.105729 -0.0145576 0.0026168
-0.138891 0.236875 -0.0537567
-0.142371 0.300393 -0.0946616
0.151767 -0.240704 -0.202744
-0.0499625 -0.0137903 -0.0300371
0.112559 -0.140625 -0.198881
0.110955 -0.147482 -0.201245
-0.0775889 -0.00484963 -0.196808
-0.102549 -0.0421286 -0.199859
0.218331 -0.00381689 0.0948475
0.0301071 -0.0130429 -0.0355918
-0.0792979 -0.00675479 -0.191447
-0.0920391 -0.00527587 -0.105736
-0.101684 0.309034 0.138918
0.0435021 -0.00918681 -0.0872051
-0.14018 0.307414 -0.0444929
0.210915 -0.0107025 0.124842
-0.154476 0.363295 -0.0922018
0.158302 -0.00326209 -0.0931095
-0.0811601 -0.0117053 0.0219077
-0.045024 0.00110738 -0.135382
0.069486 -0.0784868 -0.198619
-0.0885175 -0.005627 -0.0449212
0.159333 -0.282611 -0.197237
0.228882 0.00746279 -0.107865
0.148681 -0.240517 -0.205807
0.175192 -0.257842 0.208478
0.0825341 0.00052268 0.142467
-0.109354 -0.086375 -0.213385
-0.00318971 -0.0147915 0.186458
-0.107632 0.275877 0.151191
-0.131947 0.282963 0.0407563
0.0998766 -0.00781437 0.165184
0.011313 0.056909 -0.190776
-0.102829 -0.0317278 -0.198356
-0.043201 0.00515634 -0.148919
-0.033583 -0.0136739 0.0528297
0.225537 0.00264897 -0.0438295
0.117764 -0.0134168 -0.145981
-0.0593931 -0.0229047 0.196114
-0.0281386 -0.0193545 0.0311654
-0.0946308 -0.0318706 -0.191388
-0.148487 0.329308 -0.0910557
-0.126995 0.231579 0.0726996
-0.136781 0.294957 0.0253814
-0.184289 0.389653 -0.0253399
0.0265417 -6.4447e-06 -0.159
0.171541 0.00933945 -0.138482
-0.138189 0.227414 0.044867
0.213692 0.012217 -0.114165
0.153828 -0.0102671 -0.0576275
-0.135754 0.235895 0.051098
-0.0776091 -0.00350854 -0.201532
-0.101021 -0.0078885 -0.175491
-0.142708 0.286878 -0.0798607
-0.152162 0.346042 -0.0222862
0.0189116 0.0346553 -0.192198
-0.137108 0.301453 -0.0202002
-0.135654 0.369464 0.0892405
-0.129579 -0.303785 0.190383
0.133814 -0.264561 -0.183293
0.0247715 -0.00893639 0.0532766
0.15421 -0.0132734 0.122877
0.0193359 -0.0395615 -0.175374
-0.152979 0.343347 -0.025179
0.0282271 -0.000108787 -0.157327
0.0988569 -0.106327 -0.194982
0.0607062 -0.00525179 0.0103656
-0.135078 0.267577 -0.00390176
-0.0824141 0.0858126 -0.187744
-0.0136375 -0.00846198 -0.0656967
-0.142464 0.337875 0.0628641
0.0463999 -0.0105199 -0.0120136
-0.12156 0.278283 0.0881142
-0.0843891 0.207805 -0.189522
0.0264241 -0.00517054 -0.167012
-0.123687 0.345503 0.093004
-0.146739 0.240823 -0.0286575
0.128327 -0.00589917 -0.0923057
0.118631 -0.00511902 0.119919
-0.135295 -0.111324 -0.212524
-0.0320264 0.00562277 -0.122195
-0.0871149 -0.0153772 0.172869
-0.159387 0.364993 -0.0456775
-0.125146 0.342933 0.111168
-0.15196 0.340433 -0.037754
0.14288 -0.229113 0.205955
0.0380578 -0.0116891 -0.161
-0.0796297 0.00601839 -0.199495
-0.148363 -0.365714 0.163372
0.167166 -0.287403 -0.202205
-0.0686487 0.0542155 -0.197157
-0.142888 0.300724 -0.110382
-0.0437001 -0.0251829 0.118249
-0.146666 0.346618 0.0497201
-0.144402 0.245419 -0.0109216
0.00729109 -0.0115659 0.194174
-0.141738 0.279507 -0.0976208
-0.0269468 -0.0210066 0.0267847
-0.158872 -0.321177 0.179885
-0.116925 0.266995 0.149384
-0.103013 -0.0776013 -0.209494
0.215859 -0.00783381 0.0248855
-0.0913203 0.305288 0.161033
0.00246455 -0.0167869 0.22855
-0.0129194 -0.0139545 -0.0755103
-0.0242346 0.00368469 -0.128914
0.040062 -0.00464898 -0.114839
-0.0999873 0.232387 -0.168729
-0.0481491 0.124082 -0.181372
-0.126085 0.282194 0.060475
-0.0973558 0.314691 0.147505
-0.148742 0.323982 -0.017676
0.0185067 0.0100702 -0.199843
0.220202 0.00119046 -0.0509244
-0.131946 0.0287828 -0.181921
-0.000122971 -0.0139067 -0.0855108
-0.152329 0.340517 -0.0317284
0.0351084 -0.000303524 -0.124938
-0.115554 0.313033 0.101862
-0.175938 0.366979 -0.0261258
-0.155285 -0.392567 -0.0529234
-0.150695 0.347583 -0.0904567
-0.156678 0.350538 -0.095632
-0.141289 0.293548 -0.0280256
0.107836 -0.0176156 -0.148326
-0.155271 -0.390828 -0.0562217
-0.166787 -0.397901 -0.137497
-0.0288537 -0.0141564 0.0459943
-0.122969 0.310577 0.0923726
-0.167189 0.34337 -0.110912
0.175283 -0.297727 -0.198317
-0.139826 0.282543 -0.111366
0.0824525 -0.00708394 0.0891591
-0.0465173 -0.0165062 0.0300044
-0.0776468 0.203084 -0.187923
-0.039528 0.0842507 0.226058
0.0450818 -0.015202 0.00439654
-0.11459 -0.113464 -0.212628
-0.0740992 0.0846227 -0.188615
0.126973 -0.010601 -0.0262262
-0.132889 -0.113922 -0.195562
-0.0386153 0.014799 0.224382
-0.120112 0.339475 0.093567
-0.149463 0.243623 -0.0739246
0.220516 -0.0151255 0.0363665
-0.139351 0.245527 0.0375523
0.0372665 -0.00244432 -0.11574
-0.14139 0.242978 -0.0634075
0.0681809 -0.00661623 -0.145641
0.201193 -0.00570747 0.184047
0.0280142 -0.00929159 -0.0608209
-0.0365977 0.183023 0.20583
0.223636 -0.00414278 -0.110208
-0.0833864 0.221935 -0.185624
0.00895082 0.0171978 -0.180632
-0.143507 0.24317 -0.0208769
0.0579221 -0.0101199 -0.0818324
0.194529 0.0148304 -0.137857
-0.0249937 0.0905499 -0.183142
-0.0333252 0.0147177 0.228429
0.0939484 -0.00520956 0.175257
-0.145775 0.262179 -0.119546
0.138631 -0.0133019 0.216749
-0.135019 0.271065 -0.148128
-0.129892 0.308305 0.0655879
0.217133 -0.0129878 0.070543
-0.101213 0.285821 0.110892
-0.122938 0.285804 -0.148153
-0.174307 -0.399341 -0.195231
-0.0868524 -0.0102899 -0.0369635
0.226189 0.00562358 -0.111127
0.226467 -0.00877343 -0.013111
0.00118157 0.11212 0.212935
-0.124097 0.244461 0.0552007
-0.140396 0.349298 0.0695902
0.133213 -0.0064671 0.102389
0.00603977 -0.00022099 -0.156834
-0.186316 -0.316453 -0.225031
-0.100667 0.326758 0.13624
-0.157164 0.334864 -0.12623
-0.149399 0.239714 -0.174434
0.232379 -0.00518036 -0.0723619
-0.150217 0.331946 -0.108598
0.0246482 -0.0166418 -0.179831
0.0952066 -0.112745 -0.205658
-0.14071 0.284507 -0.00205959
-0.0588389 -0.0136395 0.200676
0.0139827 -0.0185126 -0.0381981
-0.139531 0.293291 -0.0199517
-0.148343 0.331832 -0.106738
-0.0618936 -0.0180132 -0.184824
0.170029 -0.290345 -0.206552
-0.142646 0.287361 -0.096226
-0.0522634 -0.0112352 -0.0188633
-0.074277 0.181971 -0.192007
-0.104273 0.303433 0.121906
0.13417 -0.26083 -0.18056
-0.0532296 0.0755164 -0.190603
-0.0960415 -0.0183272 -0.201574
0.101302 -0.0110303 0.192446
0.153395 -0.00742053 0.0485701
0.147892 0.0059911 -0.139144
-0.155439 0.327133 -0.0464587
0.226042 -0.000228269 -0.0416172
-0.013869 -0.0168969 -0.0237999
0.00442787 -0.00112036 -0.145981
0.224099 -0.00177567 -0.110318
0.217333 0.0147227 -0.12632
-0.149017 0.321274 -0.0238496
-0.16203 0.375183 -0.0657431
0.0210666 0.0300499 -0.191376
0.0208062 0.032303 -0.190976
-0.0552367 0.0711839 -0.195181
0.210369 -0.000276156 0.0852954
-0.0776025 -0.00417886 -0.199173
0.0263524 0.00477207 -0.192201
-0.188858 -0.321278 -0.230294
-0.0691542 0.18166 -0.186922
0.107841 -0.00763821 0.133769
-0.127117 0.334099 0.0836327
-0.0825979 0.221779 -0.183599
0.106843 -0.0065628 0.0718934
-0.156876 0.232232 -0.177818
0.116518 -0.016756 0.227804
-0.11578 -0.0951489 -0.209714
-0.147545 0.334386 -0.0988066
-0.136109 0.240395 0.0252964
0.15962 -0.221391 0.200924
0.199665 0.0163303 -0.138599
0.111963 -0.0049056 -0.108547
0.0240738 0.019346 -0.194037
-0.0495953 -0.0119741 0.112356
0.128377 -0.0144505 0.0161235
0.0753765 -0.00367993 0.0702648
-0.127945 0.262167 0.0527005
-0.0990973 -0.0122512 -0.0142223
-0.0429208 -0.0308442 0.128842
-0.0177074 -0.0200521 0.129452
0.162712 -0.255665 0.200333
0.114278 -0.164889 -0.197913
-0.120592 0.290013 0.0887205
-0.142706 0.269195 -0.0391748
-0.140003 0.284127 0.0100153
-0.2303 -0.357752 -0.229368
-0.0862378 0.286697 0.174718
-0.0237414 -0.0235202 0.126158
-0.102388 0.237162 -0.167201
0.138139 -0.0115904 0.0829148
-0.0682956 -0.00920507 -0.183601
0.19012 -0.365768 -0.207178
-0.0893757 0.277379 0.184101
-0.163609 0.381173 -0.0502797
-0.0650552 0.0285753 -0.1947
0.174943 -0.378444 -0.204575
0.148584 -0.00714902 -0.0301415
-0.138777 0.284014 0.0124958
-0.0301975 -0.0137794 0.0434727
0.140162 -0.00765289 -0.145872
-0.0377794 0.0249844 0.224401
-0.140137 0.256215 -0.106683
-0.00313816 0.0351068 -0.201597
-0.107937 0.312531 0.114509
0.217064 -0.0179701 0.0881276
0.0314952 -0.00722767 -0.0656189
0.064606 -0.0179495 -0.0493409
0.188899 -0.0101531 0.137175
-0.0652119 0.183611 -0.18109
-0.107273 -0.0889461 -0.204391
-0.12962 0.298618 -0.156231
0.0750626 -0.0125033 -0.0868844
-0.0142431 -0.0122955 0.196419
0.228377 -0.00568535 -0.0880264
0.0581809 -0.0431725 -0.198372
0.0454044 -0.0408295 -0.201669
-0.151094 0.31637 -0.0834768
0.137537 -0.219717 -0.204572
-0.132615 0.328603 0.0560646
-0.0607466 -0.00206701 -0.0833709
0.127481 -0.0199437 0.198428
-0.0133291 -0.0162544 0.0419429
0.225797 0.00252086 -0.108612
-0.151595 0.329527 -0.0788359
-0.136211 0.303069 0.0487392
-0.133196 0.366414 0.0908262
-0.134844 0.22871 0.0702975
-0.150608 0.335044 -0.0214042
0.154783 -0.0106775 -0.0555092
-0.150093 0.350115 -0.0903779
-0.155422 0.343931 0.00948982
-0.132959 0.349527 0.120511
-0.0263391 0.0954934 -0.184321
0.00312265 0.0574063 -0.198905
-0.143105 0.332004 0.0235227
-0.0632296 -0.0132246 -0.0534733
0.159572 -0.277673 -0.196817
0.0917771 -0.111377 -0.206171
-0.151683 0.355364 -0.0917138
-0.141779 0.331879 0.0133531
0.0550901 -0.00614103 -0.0796987
0.138221 -0.214935 -0.194825
-0.0294503 0.00456148 -0.126278
0.215983 -0.00593612 0.0446886
0.225248 -0.00262026 -0.0265524
0.148163 -0.00644988 0.0920068
-0.152204 -0.0259082 0.142242
0.123019 -0.184633 -0.199991
0.101645 -0.124239 -0.196163
0.227883 0.0162519 -0.108837
-0.126719 -0.145023 -0.215052
0.017132 0.00791648 -0.201866
0.0227742 -0.0178724 -0.16934
-0.0657008 -0.0160296 -0.185537
-0.139489 0.285529 -0.124167
-0.0341587 0.0277068 0.230135
-0.133511 0.265951 -0.0920238
0.0206113 0.00699293 -0.134889
0.215316 -0.0250759 0.0931918
0.126579 -0.19379 -0.202913
-0.142809 0.220282 0.0202545
-0.124128 -0.11119 -0.211399
0.0325895 -0.0250506 -0.20105
0.0284362 -0.0439106 -0.177657
-0.136807 0.320339 0.0379249
-0.142061 0.239131 -0.0460975
0.0158637 0.0761627 0.209538
0.139741 -0.00766391 -0.0264817
-0.144428 0.35218 0.0523432
-0.137545 0.257025 -0.0719586
0.22392 -0.0128607 -0.0551273
-0.090871 -0.0196436 0.158895
-0.14731 0.329157 -0.1307
0.150071 -0.0117348 0.0719839
-0.216279 -0.385959 -0.232427
-0.0582435 -0.0142092 -0.0347038
0.167554 -0.0101026 0.0595381
-0.132155 0.28335 0.0279131
-0.0185903 -0.0168537 0.142248
0.225935 -0.0133321 0.097181
-0.158302 -0.380109 0.151642
-0.103392 0.303449 0.117703
-0.0829767 0.0906812 -0.186879
0.0370249 -0.00750212 -0.191403
0.105851 -0.00751734 0.131793
-0.1368 0.306789 -0.0106696
-0.0745969 0.282678 0.196769
-0.150117 0.321381 -0.035127
-0.106878 0.275992 0.146888
-0.140639 0.305697 -0.105372
-0.141864 0.237715 -0.0667108
-0.0385984 0.00338225 -0.148615
-0.1379 -0.371844 0.168316
-0.141972 0.310148 -0.0404005
0.225553 -0.00334362 -0.0239081
-0.0429989 -0.0143021 0.073723
0.0626031 -0.006421 0.144504
-0.164359 0.356022 0.0218632
0.055303 -0.00289209 -0.143535
0.0480082 -0.0141895 -0.0471593
-0.147293 0.32915 -0.133234
-0.0831872 0.0062344 -0.203026
-0.0658137 -0.0150532 0.202135
0.12486 -0.0152492 0.0454762
-0.0356464 0.0148586 0.226125
0.148922 -0.00264512 -0.0947572
0.188097 -0.361445 -0.207949
-0.142994 0.220552 0.0571119
0.229652 0.000107356 -0.0697372
0.147567 -0.362946 -0.197081
-0.137658 0.249518 0.0174936
0.228441 -0.00101475 -0.0955092
-0.145672 0.315771 -0.043758
0.0357008 -0.0213272 -0.156021
-0.139928 0.299495 -0.054218
0.0799028 -0.00353515 0.0289929
-0.104212 -0.0154801 -0.00504411
0.127412 -0.0187377 0.169397
-0.126254 0.334286 0.125349
-0.0782667 0.193762 -0.191293
-0.0562233 0.000297984 -0.0997738
0.0372786 -0.012968 0.0787486
0.214071 -0.0118119 0.121332
0.0611075 -0.0124042 0.118287
0.0839419 0.000157254 0.145057
-0.0651009 0.0210593 -0.195684
-0.153095 0.372418 -0.0447823
-0.0899011 0.293009 0.170325
0.170011 -0.348761 -0.20337
-0.153339 0.348864 -0.0213697
-0.101844 -0.0165483 0.0136047
0.091382 -0.00768369 0.133696
0.173156 -0.00548379 -0.0252183
0.184161 -0.00186827 -0.135403
-0.141548 0.26944 -0.045581
-0.0584128 0.000866277 -0.092896
0.202042 -0.00231076 0.0482411
0.0215873 -0.0209401 -0.176541
-0.108475 0.306765 0.107169
-0.102135 0.320948 0.133046
0.0053702 0.0597996 -0.197204
0.0226767 -0.0199641 0.213621
0.22489 0.00377604 -0.0403276
0.0277741 -0.00210095 0.210008
-0.18309 -0.318848 -0.223751
-0.149361 0.360983 -0.0647706
-0.153907 0.341364 0.0434058
-0.15748 0.335349 -0.0473776
0.220062 -0.00813086 0.0927781
-0.133454 0.256647 -0.0653871
0.0921162 -0.13167 -0.204154
-0.147582 0.308738 -0.115316
0.0407847 -0.0184917 -0.192114
0.0852537 -0.0102998 -0.0415225
-0.134099 0.300011 0.0537978
-0.0275772 -0.00178653 -0.159395
-0.0980362 0.241057 -0.18715
-0.151652 0.367324 0.0647981
-0.133904 0.263409 0.0266499
0.224729 0.0120839 -0.111976
-0.159645 0.351979 -0.0268246
-0.0756106 0.0818149 -0.188419
0.180189 0.000790319 -0.139909
0.211392 0.00331576 -0.0171355
-0.10837 -0.0202208 0.163989
0.177294 -0.00825683 0.00491428
-0.123539 -0.000808784 -0.124777
-0.160462 0.347438 0.0347464
0.0339488 0.0346095 0.206658
0.181938 -0.27302 0.204453
-0.049856 -0.0219468 0.155046
-0.179694 -0.39378 -0.168446
0.191539 -5.14259e-05 -0.135062
-0.0838397 -0.0184312 0.087327
-0.136346 0.36152 0.116794
0.0457958 -0.0290245 -0.200348
-0.14373 0.277408 -0.110448
-0.099797 0.248163 -0.185563
0.206793 -0.00352311 0.157207
-0.00584453 0.0677747 -0.19854
-0.106524 0.297978 0.101456
-0.0150737 0.0837982 -0.190402
0.149206 -0.00700039 0.105645
0.0958343 -0.00924927 0.074
0.218565 0.00831903 -0.0288101
0.0919568 -0.0141898 -0.141692
0.210856 0.000691295 0.0172404
-0.144625 0.247366 -0.175006
-0.13081 0.302561 0.065519
0.210341 -0.0213759 0.16446
-0.0314449 0.176626 0.209154
-0.128823 0.296646 0.0670608
0.133444 -0.0172336 -0.150382
-0.136361 0.309042 0.0299518
0.0234877 0.00375637 -0.139309
0.0906621 -0.0107585 -0.0540383
0.11221 -0.00752907 -0.0211186
-0.0951768 -0.0175302 0.102905
-0.13696 0.314673 0.0373765
-0.15817 -0.368583 0.161541
0.0650147 -0.0163826 -0.0726854
-0.0805512 -0.010914 -0.196487
0.0645356 -0.0156431 -0.0665784
-0.164914 0.356167 -0.104846
-0.147716 0.246562 -0.0305047
0.189844 0.00926278 -0.137856
-0.145413 0.263283 -0.0296298
-0.0934687 0.198195 -0.170932
0.154383 -0.00894097 -0.144628
-0.0277429 0.0564935 0.222147
0.00803684 0.0571079 -0.194027
-0.141354 0.274484 -0.103809
-0.130172 0.256489 0.0500527
-0.0200156 -0.018027 0.0932996
0.00441301 0.0525486 -0.197756
0.216671 -0.00380378 0.0115952
-0.0336675 0.176761 0.206948
0.194763 0.0128085 -0.138217
-0.117993 0.00152671 -0.118486
0.212625 0.000681093 -0.0153906
-0.152168 0.343748 0.0139987
0.221599 -0.0035234 -0.0496256
-0.105921 0.0266625 -0.186841
0.208583 -0.0111813 0.135092
-0.137922 0.256329 -0.00371283
0.144083 -0.00988271 -0.0329448
-0.137174 0.320346 0.0413802
-0.072353 -0.0204006 0.160812
0.073785 -0.0122712 -0.146742
-0.0371719 0.110222 -0.192206
-0.0567826 -0.0155044 0.165239
0.0269649 -0.0177642 -0.166349
0.0236791 -0.0155426 -0.0989079
0.0647521 -0.0156814 -0.0752935
0.164835 -0.00507537 -0.0245837
0.170651 -0.00920262 0.0884251
-0.16487 0.220789 0.00958491
-0.190992 -0.396729 -0.208771
-0.00167024 -0.00877952 0.189763
-0.114526 0.262865 0.0996053
0.095843 -0.128202 -0.203192
-0.129065 0.296786 0.0604834
-0.00986046 0.00633151 -0.127633
-0.0863022 0.00649317 -0.186977
-0.149397 0.235488 -0.0749778
0.186983 -0.3373 -0.207066
-0.227329 -0.360689 -0.233604
-0.187892 -0.356452 -0.224375
-0.100798 -0.0250924 -0.200724
0.219246 -0.0134936 0.0648814
-0.154158 -0.0205802 0.14821
-0.143387 0.334794 0.0176851
-0.0191078 0.00121851 -0.144854
-0.152473 0.368908 -0.0706806
-0.0734323 -0.000573781 -0.076629
0.218082 0.00723378 -0.122669
0.163478 -0.244152 0.204496
0.0388916 -0.0224459 -0.196465
-0.0105091 0.00116689 -0.156576
0.0945683 -0.0116873 -0.0567382
-0.133667 0.275058 0.0213959
-0.189241 -0.395532 -0.136543
-0.157483 0.343875 -0.00790492
0.13076 -0.204982 -0.196885
0.163128 -0.0127953 0.106535
-0.0167189 -0.0140036 0.00731339
0.0267537 0.00524821 -0.13302
-0.0266939 0.0878009 -0.194592
0.118285 -0.00634341 0.0796942
0.161543 0.00876178 -0.137282
-0.140392 0.312209 0.0166138
0.0170228 0.0306155 -0.19657
0.134541 -0.216235 -0.2002
-0.103189 -0.036356 -0.201356
-0.122325 0.247238 0.0578084
-0.142278 0.313436 -0.098377
-0.0274085 0.0914388 -0.189144
-0.156586 0.357395 -0.0157662
-0.149482 0.318898 -0.0811039
0.21928 0.00549601 -0.0582364
0.221566 -0.0177044 0.0124504
-0.102195 0.268143 0.109794
0.0861498 -0.0134332 0.0502367
0.138969 -0.00220533 -0.0881134
0.15693 -0.255406 -0.190383
0.210548 -0.00394455 0.0334103
0.107632 -0.13332 -0.197884
-0.0485976 0.005484 -0.154276
-0.172219 0.372067 -0.0272436
0.146935 -0.222775 0.201721
-0.19419 -0.391145 -0.215458
-0.0490854 -0.0147801 0.045763
0.112927 -0.00654194 0.121385
0.13524 -0.0119153 -0.0501261
-0.07129 0.0540959 -0.198586
-0.145409 0.329026 -0.136466
-0.101 -0.0318389 -0.19654
0.0604978 -0.00343788 -0.120602
-0.132939 0.300994 -0.144864
-0.142027 0.298323 0.00959894
-0.105079 0.266324 0.159881
-0.155531 0.355543 -0.0980991
-0.120959 0.234977 0.115489
0.0784429 -0.0123137 -0.048997
0.140103 -0.015646 0.214996
-0.136293 0.325972 0.0286299
-0.162577 0.347094 -0.00190772
0.0344615 -0.00915824 -0.188107
0.21714 -0.00472913 0.0780795
0.222755 -0.00750322 -0.0509035
-0.0554434 0.0622176 -0.189107
0.05518 0.00227164 0.209669
0.0190602 0.00538504 -0.139479
0.10602 -0.15143 -0.192098
-0.151328 0.321505 -0.0490607
-0.150508 0.326834 -0.0224444
0.173338 -0.292643 -0.203885
-0.142458 0.310372 -0.0573962
-0.16565 0.353648 0.0415297
-0.144049 0.308768 -0.129583
0.00863497 -0.0149547 0.167766
-0.0882531 0.219885 -0.191145
-0.0637594 0.178996 -0.182256
0.216201 -0.0128541 0.0785641
-0.185893 -0.393246 -0.150333
0.0782178 -0.0209737 -0.0555976
0.0672368 -0.0577934 -0.197349
-0.0287811 0.0210309 0.233604
-0.121054 -0.145367 -0.20943
-0.0564586 0.0728279 -0.192108
0.202264 -0.00169732 -0.134907
-0.14326 0.321244 -0.0996206
0.140653 -0.0119073 -0.146628
-0.144956 0.251379 -0.0161005
-0.150105 0.226197 0.0184467
-0.088706 0.0294166 -0.195405
-0.134023 0.260694 0.0231809
-0.147273 0.275143 -0.117244
-0.140628 0.285401 -0.0323056
-0.137747 0.288404 -0.0450814
-0.104266 0.278995 0.145312
-0.131963 0.288436 0.0512736
-0.0951079 0.281476 0.154021
0.0574322 -0.00688133 -0.145108
-0.123485 0.261631 -0.163469
0.0697234 -0.0868027 -0.202101
-0.151988 0.370231 0.0653145
-0.111642 0.27764 0.099221
0.0286472 -0.0178663 -0.164679
0.170959 -0.30886 -0.197041
-0.134032 0.325834 0.0499937
0.0155882 -0.0142671 0.169895
-0.116451 -0.113351 -0.214475
-0.0512449 0.0053247 -0.155723
-0.0100882 -0.0140643 -0.0828794
-0.153147 0.352777 0.0475328
-0.132463 0.241867 0.0498073
0.0805775 -0.00428886 0.0218047
0.0983401 -0.112935 -0.202548
-0.142621 0.334987 0.0593055
0.0449544 -0.0106196 0.00816612
0.0650422 -0.0549699 -0.193637
-0.141343 0.301329 -0.00284597
0.0998367 -0.00805066 0.0197622
0.143719 -0.0113331 -0.14591
-0.0966651 0.314635 0.150736
-0.139174 0.30884 -0.151404
0.211574 -0.0100723 0.14354
0.0245792 0.0691018 0.20097
0.0157075 0.0566246 0.212552
0.171377 -0.250876 0.204124
-0.0977892 0.293962 0.138417
-0.138556 0.279704 -0.0280644
-0.0920876 0.299251 0.164854
0.0652691 -0.00297964 -0.143689
0.225326 -0.0135077 0.051901
0.144507 -0.0189486 0.159839
-0.0328546 0.0486099 0.226134
0.0847418 -0.0108101 0.0941994
0.128102 -0.0195571 0.185148
-0.131213 0.244823 0.0493917
-0.137114 0.308998 0.0368258
-0.121923 0.255327 0.0720678
-0.122017 0.23789 0.0668398
0.0834136 -0.024814 -0.145804
0.186055 -0.324276 -0.197798
0.0152188 -0.00665736 -0.0704248
-0.105418 0.280303 0.102469
0.115308 -0.166549 -0.198636
-0.140212 0.261966 -0.116538
0.181237 -0.33602 -0.203573
-0.146903 0.315786 -0.0373501
0.093692 -0.0182624 0.178804
-0.0730166 -0.0120824 -0.0541032
-0.0491663 -0.00790881 0.00563963
0.0385846 -0.0129576 -0.0588677
0.107268 -0.0136629 0.111022
0.147757 -0.0124019 0.125535
0.0959554 -0.0120416 0.0631031
-0.194665 -0.393006 -0.212661
0.122153 -0.205059 -0.204329
-0.158139 0.226947 0.00672661
0.000106934 -0.000872897 -0.159197
-0.138381 0.299276 -0.0463461
-0.124921 -0.273924 0.166913
0.0871943 -0.0103722 0.0394463
0.0335742 -0.0106449 -0.199639
0.026304 0.0424504 0.210164
-0.163912 0.355919 0.0184609
0.0683022 -0.0657268 -0.201158
0.0943948 -0.00760333 -0.129642
-0.0755311 0.200875 -0.188985
-0.140688 0.235043 -0.0675837
0.213666 -0.00612826 0.0435655
-0.0777799 -0.0178294 0.0757817
0.143183 -0.228559 -0.20147
-0.158575 0.335408 -0.0497408
-0.137589 0.226528 0.0579583
0.212007 -0.0112489 0.158927
-0.0658433 -0.0137626 0.0291301
0.21738 0.00562193 -0.0677674
0.165203 -0.00479993 0.0383281
-0.12045 0.342393 0.0940852
-0.147331 0.352379 0.0507432
0.0714115 -0.00469234 -0.116317
0.149888 -0.01721 0.204028
-0.000265373 -0.0130647 0.0752014
-0.141037 -0.118287 -0.214002
-0.0558426 -0.00137282 0.225159
-0.135001 0.271194 -0.0907105
-0.141144 0.323768 -0.136253
0.187358 -0.00334484 -0.135157
0.0691996 -0.0884987 -0.204404
0.107922 -0.12853 -0.197457
-0.128636 0.331281 0.0774444
0.154199 -0.215762 0.198378
-0.0688822 0.179307 -0.187341
0.0730618 -0.0118867 -0.0453858
0.0736504 -0.00327301 0.0788378
0.218883 -0.0212729 0.0647738
0.121282 -0.00568083 -0.0904374
0.207062 -0.000420363 0.0271009
-0.0668956 -0.0197424 0.105336
-0.140173 0.270864 -0.0131804
-0.0331443 0.024703 0.229001
-0.0748958 -0.00689289 -0.178117
0.0113446 0.0376643 -0.200232
-0.120988 0.322142 0.0888553
0.139336 -0.221951 -0.203411
0.108592 -0.159189 -0.194332
0.0330576 -0.00617405 -0.198845
0.195275 -0.341484 -0.207568
0.169785 -0.288232 -0.206177
-0.16772 -0.393797 -0.127034
0.0605312 -0.0383382 -0.189476
0.0638576 -0.00926759 0.0174667
0.217347 0.00941366 -0.0335427
0.0015365 -0.0227073 0.224595
-0.148113 0.357794 -0.0848428
0.153802 -0.245052 -0.201968
-0.121459 -0.101913 -0.203422
0.0185456 -0.0406681 -0.172675
-0.139952 0.283838 -0.0703229
-0.145772 0.241432 0.0081891
0.0052614 -0.0143708 -0.0292203
-0.0910739 0.284231 0.158908
-0.15209 0.332059 -0.110457
-0.141383 0.310292 -0.0550588
-0.0274114 0.0981058 -0.18591
-0.104681 0.271228 0.108191
-0.142559 0.284317 -0.0830133
-0.13808 0.248465 0.0371516
0.0369724 -0.0142091 0.0717005
0.0316758 -0.0133629 -0.00223428
-0.025115 -0.0140691 -0.0101119
0.0395327 -0.0103043 0.157015
-0.184368 -0.4 -0.203042
0.0528798 -0.00466125 0.012829
0.216114 0.00573288 -0.126374
0.203316 -0.364439 -0.210024
-0.0559548 -0.0137558 -0.0233351
0.15244 -0.0124422 -0.0596704
-0.0213503 -0.019396 0.0979216
-0.0948409 -0.0194375 0.170241
-0.159513 0.344179 0.0054292
-0.0327752 0.0215084 0.228434
0.181128 -0.308619 -0.195618
-0.0579064 0.00624958 -0.134139
-0.12796 -0.100883 -0.195666
0.225194 0.00805621 -0.112691
-0.134325 0.369422 0.091845
0.0358545 -0.00698103 -0.161841
0.0369441 -0.0271571 -0.198545
0.111209 -0.0147382 -0.0331742
-0.179666 -0.397006 -0.15662
-0.147946 0.342516 -0.0649514
-0.128594 0.325504 0.0566663
0.171973 -0.358786 -0.205613
-0.152025 0.33516 -0.0177029
-0.134586 0.265447 0.0469557
0.121217 -0.0158153 0.0250578
-0.129457 0.277816 -0.058941
-0.0821422 -0.0122246 0.177547
-0.123251 0.291022 -0.15713
-0.145496 0.24419 -0.037882
-0.0895138 0.302117 0.167024
-0.140063 0.278903 -0.00305478
0.0432847 0.0101255 0.208884
0.0106119 -0.0148322 0.182546
-0.0817297 0.00160679 -0.20419
-0.176533 0.367119 -0.0228617
-0.112299 0.268662 0.102288
0.109832 -0.00775908 0.135745
0.101265 -0.0144381 0.0550159
-0.118263 -0.15329 -0.208942
0.162504 -0.0172991 0.189981
0.0958444 -0.0203631 0.176537
0.184035 -0.273148 0.206534
-0.0719142 0.18827 -0.182667
-0.213992 -0.381364 -0.232587
-0.155178 0.334819 -0.11149
0.145729 -0.015393 0.146824
0.107457 -0.0163896 0.0670711
0.160643 -0.280558 -0.195309
0.00309198 0.0037998 -0.13696
-0.154426 0.346145 -0.0270926
0.210983 -0.0049572 0.144448
0.177458 -0.00989705 -0.136892
0.00213138 -0.0192619 0.140807
-0.000613972 0.0522639 -0.20037
0.081709 -0.0922326 -0.196688
-0.0119417 -0.0139518 -0.0847191
0.0229619 0.0276976 -0.190153
0.188267 -0.335288 -0.205178
0.215908 -0.00449742 -0.00340119
-0.145502 0.331664 -0.102642
-0.130344 0.32276 0.0540902
-0.132573 0.331505 0.069708
-0.0317619 0.173483 0.209183
-0.101547 0.33871 0.149066
0.127461 -0.00795981 0.0821168
0.225653 -0.0108927 0.0976142
0.203341 -0.00148191 0.0370508
-0.0162218 0.04684 0.228397
-0.140148 0.234476 -0.0174931
-0.154965 0.332509 -0.0431229
0.0220357 0.00761875 -0.196999
0.221363 -0.0187571 0.0157595
0.0227015 0.0299507 -0.189753
0.211507 -0.0129177 0.175776
-0.0368647 0.0809444 0.227775
0.0404281 -0.0120189 0.0656394
0.200985 -0.00227004 0.147883
0.104371 -0.155146 -0.201231
0.00796431 0.043659 -0.198059
0.00148458 0.0575058 -0.200531
-0.123243 -0.14265 -0.210842
-0.146843 0.267398 -0.173901
-0.0899224 0.0030867 -0.125355
-0.153267 0.360602 -0.0930473
0.0746754 -0.0115569 -0.00669297
0.164084 -0.287216 -0.205265
0.0662484 -0.0791854 -0.199546
0.130857 -0.0192447 0.174002
0.0291921 -0.00728137 -0.166111
-0.139999 0.249573 -0.0830051
0.228445 0.00489932 -0.100138
-0.127918 -0.0263029 0.161567
0.154622 -0.01243 -0.0498141
-0.138144 0.263811 -0.101158
-0.159836 -0.394828 -0.12447
-0.0856638 0.00860957 -0.184434
-0.039094 0.0782976 -0.193347
0.0851439 -0.0112323 0.131447
0.110165 -0.149039 -0.198678
-0.077217 -0.00933843 -0.190105
-0.101287 0.250229 -0.180087
-0.188172 0.395773 -0.0198137
0.152985 -0.202618 0.204844
0.128814 -0.0184919 -0.150331
-0.0296186 0.0895208 -0.193217
0.115289 -0.0148 0.0168179
0.171635 -0.286969 -0.195013
0.135353 -0.0127289 0.0746659
-0.13813 0.291409 -0.0560561
-0.149602 0.384273 0.0654843
-0.137488 0.262511 -0.0741103
0.157136 -0.0166858 0.127378
-0.113421 0.312904 0.103979
-0.14806 0.23273 0.00841471
-0.147456 0.227874 -0.00515035
-0.0730906 0.273861 0.182949
0.224463 -0.0104961 0.0952538
0.0244577 -0.0179746 -0.167669
0.145027 -0.219299 0.199541
-0.140673 0.290719 -0.0256872
-0.124946 0.278968 0.0695979
-0.123199 0.264807 -0.177541
-0.123963 0.284488 0.0798645
-0.138151 0.303447 0.0303195
0.205233 0.0116353 -0.133081
-0.139591 0.298 0.0208878
0.0859917 -0.00752732 0.0173992
0.00260077 0.0619225 -0.198103
0.10706 -0.00979543 0.154014
-0.14296 0.237864 -0.0690493
0.215088 -0.00151782 0.0195917
-0.123452 0.269576 0.0849144
-0.0897426 -0.00525561 -0.0473245
-0.147339 0.275248 -0.11983
0.0259319 -0.000380931 -0.122761
0.214011 -0.00214245 -0.00462471
-0.143151 0.233751 -0.00671881
-0.127327 -0.107051 -0.20194
0.130609 -0.0041478 -0.0882099
0.157564 -0.00933335 0.0687901
-0.130052 -0.156554 -0.217991
0.0940238 -0.00755406 0.135128
0.12629 -0.2139 -0.202751
-0.050348 -0.0117067 -0.0604055
-0.0332711 -0.0161207 0.0384033
0.118267 -0.00921711 -0.0103959
0.226656 0.00134396 -0.104267
-0.218955 -0.364512 -0.231367
-0.159058 0.338482 -0.00471064
0.0902828 -0.00774731 0.00127552
0.00846673 -0.0134037 -0.0091262
-0.142617 0.238926 -0.0428967
-0.148407 0.363207 -0.0758983
-0.152894 0.359915 -0.0112944
-0.0620596 -0.00924459 0.178321
-0.157659 0.241199 -0.0790954
-0.0705141 0.193429 -0.184832
-0.156117 0.366432 -0.0776403
-0.13331 0.343713 0.127368
-0.0735535 0.198421 -0.187709
-0.12443 0.325251 0.0607992
-0.031113 -0.016353 0.202398
-0.044732 0.0254066 0.2175
0.0708994 -0.0075557 0.00596557
-0.00162282 0.105896 0.210819
0.131841 -0.0139707 0.0363356
-0.0810352 -0.0113036 -0.0403067
-0.140426 0.352117 0.0665655
-0.140301 0.329017 0.0216526
-0.139612 0.223461 0.0588356
-0.0624136 -0.0145134 -0.0479294
-0.0403902 0.138074 -0.187259
0.16399 -0.28791 -0.200465
-0.0173769 0.00287597 -0.110751
-0.0671744 0.179203 -0.185645
0.039461 -0.00806074 0.0492566
0.103074 -0.0154936 0.0603567
0.0441847 -0.00537873 -0.0815706
-0.0419124 0.135462 -0.187017
-0.0821347 -0.0184199 0.0750319
-0.135469 -0.305995 0.181232
0.0338325 -0.0128799 -0.200036
-0.135097 -0.0223779 0.080263
0.212405 -0.0154749 0.154261
0.220784 0.000126295 0.0538739
-0.120975 0.263256 0.0932045
-0.1222 0.286479 -0.170152
0.210382 -0.3526 -0.205773
0.0859673 -0.104355 -0.204876
-0.144426 0.227567 -0.0404196
0.173084 -0.263376 0.197071
0.15114 -0.00734385 0.0271937
-0.165642 -0.399808 -0.175141
-0.197144 -0.379274 -0.221322
0.21115 -0.00893168 0.160018
-0.151574 0.0221507 -0.180762
0.230288 -0.00150183 -0.0784912
-0.0516658 0.0601634 -0.188444
-0.091376 0.293123 0.167594
0.0325521 -0.0414136 -0.181686
0.139419 -0.0145803 0.074405
-0.129917 0.231676 0.0710501
0.212482 -0.0263736 0.15368
-0.157233 0.340715 -0.0468231
0.00993559 -0.0167367 0.0155956
-0.141978 0.310837 -0.0988385
-0.232379 -0.354225 -0.225332
-0.136453 0.303284 0.035811
-0.105323 0.297814 0.10772
-0.0365447 0.0956282 -0.192044
-0.0319427 -0.0156364 -0.0314934
-0.121649 0.316391 0.0852196
0.223686 0.0148225 -0.0931029
-0.119921 0.260831 0.150916
-0.15915 -0.389528 -0.120942
-0.1423 0.340772 0.0664318
0.0596313 -0.0147282 -0.045771
-0.163214 0.347273 0.00769857
-0.124738 0.281775 0.0731844
-0.0388929 0.0113937 0.224374
0.185614 -0.00100025 -0.0138608
-0.0666848 -0.00121137 -0.0801964
-0.108037 -0.00210492 -0.171954
-0.0413425 0.00387145 -0.152518
0.0162457 0.0386741 0.206538
-0.0829469 0.210065 -0.187399
0.227497 -0.0104957 -0.0877821
0.0112991 0.0529978 0.212129
-0.0365096 -0.00449825 -0.0876401
0.0367506 -0.0178712 -0.197282
-0.146673 0.269958 -0.118165
-0.0786883 0.279885 0.191813
-0.0398245 -0.0146457 0.0156452
-0.145384 0.242009 -0.00144612
0.217081 0.00129589 -0.0221799
-0.13053 0.277927 -0.0612682
0.219755 0.0169559 -0.110468
-0.139919 0.300837 0.0213917
-0.140197 0.268203 -0.0165375
-0.0669216 0.183715 -0.182787
-0.122769 0.275347 0.0885771
0.0694891 -0.010785 -0.0971088
-0.0764986 0.00197909 -0.0777013
-0.108199 -0.0129457 -0.00577737
-0.0292322 -0.0114243 -0.000746787
-0.0238823 -0.0145556 0.0636466
-0.159398 0.366294 -0.0924679
0.00684812 0.0392423 -0.200487
-0.200641 -0.384757 -0.226469
0.204153 -0.338903 -0.202936
-0.0176769 -0.0181744 0.0344353
0.224664 8.96112e-05 -0.115572
-0.142176 0.285493 -0.12052
-0.152473 0.329713 -0.0121107
-0.136574 0.264075 -0.107143
0.0219357 -0.0408739 -0.16931
0.0904726 -0.139624 -0.204332
0.211726 -0.0121414 0.183873
-0.157802 0.34277 -0.104154
-0.126724 -0.112267 -0.202867
-0.128237 0.24161 0.054002
0.159173 -0.286898 -0.202485
0.190506 -0.334657 -0.204004
-0.051633 0.00032904 -0.0964012
-0.111122 -0.00838129 -0.0265073
-0.169216 0.359097 0.0153121
-0.0413192 -0.019354 0.0331436
0.190923 -7.24985e-05 0.0223689
-0.127617 0.358193 0.132284
-0.151646 0.340076 -0.071958
0.0151791 -0.0172046 0.141849
-0.147731 0.335005 0.00443557
0.00896615 -0.0151674 0.155291
-0.117602 0.251095 0.096857
0.113935 -0.0145085 0.0244585
-0.135059 0.297225 0.0507327
-0.0996418 -0.08323 -0.20647
-0.141245 0.320777 -0.0097697
0.139829 -0.00275675 0.103794
